2.649095e+02 -1.487442e+00 -4.095326e-05 8.908531e-05 -1.401003e-02 1.553241e-02
2.648860e+02 -1.456332e+00 8.829295e-05 -1.668085e-04 2.164764e-02 -1.511929e-02
2.649155e+02 -1.410551e+00 -3.635187e-04 -4.314946e-06 -1.087879e-03 8.799617e-03
2.648931e+02 -1.439331e+00 1.690616e-04 -5.732333e-04 1.673448e-03 -2.865517e-03
2.649224e+02 -1.337870e+00 -1.335712e-04 -8.533539e-05 1.060410e-02 2.724425e-03
2.649003e+02 -1.310871e+00 3.723505e-04 -2.108565e-04 -5.439111e-03 2.437624e-02
2.649314e+02 -1.263351e+00 6.503082e-05 8.596939e-05 7.032976e-03 2.863620e-03
2.649085e+02 -1.874501e+00 2.620923e-04 3.258902e-04 -1.978165e-04 -2.225076e-02
2.649495e+02 -1.851781e+00 -8.066972e-05 -4.389947e-04 1.127732e-02 -9.084228e-03
2.649215e+02 -1.790943e+00 3.614988e-05 -2.536669e-04 -8.633394e-03 1.337391e-02
2.648831e+02 -1.750051e+00 -3.108000e-04 1.755748e-04 1.831216e-03 2.299227e-02
2.648671e+02 -1.708821e+00 1.947979e-04 -8.550156e-05 -1.809991e-02 -9.124219e-03
2.648914e+02 -1.685992e+00 -1.033819e-04 3.006934e-04 -6.324936e-03 -2.891045e-03
2.648786e+02 -1.640435e+00 -3.544263e-05 -1.971251e-04 1.722021e-02 8.086932e-03
2.648979e+02 -1.596421e+00 2.067265e-05 -6.792035e-05 -2.228341e-03 -2.355452e-02
2.648869e+02 -1.608044e+00 -4.007922e-04 4.959883e-04 1.199246e-02 -2.323377e-02
2.649037e+02 -1.621982e+00 2.489337e-04 7.166805e-04 -1.551501e-02 8.615116e-03
2.648940e+02 -1.483366e+00 -1.818794e-04 -1.406349e-05 -7.646638e-03 -5.115308e-03
2.649096e+02 -1.491287e+00 4.836581e-04 4.820596e-04 3.120716e-03 -2.719548e-04
2.649009e+02 -1.440940e+00 -4.857697e-04 -3.931447e-04 1.725163e-02 1.460503e-02
2.649161e+02 -1.390328e+00 5.881267e-05 3.047400e-04 1.523394e-02 -6.329323e-03
2.649081e+02 -1.340408e+00 1.191053e-04 -1.660448e-04 -1.115332e-02 -2.443445e-03
2.649243e+02 -1.304625e+00 -1.470352e-04 1.983269e-04 -1.571978e-03 2.537005e-03
2.649168e+02 -1.292571e+00 -2.356437e-05 -3.938009e-04 -1.260018e-02 -1.980682e-02
2.649395e+02 -1.849990e+00 1.736777e-04 -1.983664e-06 1.450884e-02 -1.781845e-02
2.649315e+02 -1.818192e+00 -6.622947e-04 1.752917e-04 -8.199942e-03 7.075452e-03
2.648607e+02 -1.820216e+00 2.921435e-04 -4.553172e-04 -1.732831e-02 -7.657893e-03
2.648590e+02 -1.741557e+00 -5.380544e-05 3.711036e-05 -2.816430e-03 -4.439193e-04
2.648777e+02 -1.710331e+00 -4.346521e-04 -1.810971e-04 9.872477e-03 -6.491494e-03
2.648777e+02 -1.684886e+00 2.387544e-04 2.896446e-04 2.436919e-02 -4.952825e-04
2.648860e+02 -1.631806e+00 2.501768e-04 -1.104592e-04 3.022147e-03 9.174653e-03
2.648871e+02 -1.622195e+00 -3.410504e-05 3.753243e-04 1.784687e-02 2.025889e-02
2.648925e+02 -1.598121e+00 3.092574e-05 4.631330e-04 -6.010211e-03 -1.565741e-02
2.648946e+02 -1.529547e+00 -2.547592e-04 -2.426394e-04 4.664269e-03 -3.193468e-03
2.648984e+02 -1.487047e+00 3.600333e-04 1.649515e-04 1.764559e-02 2.388257e-03
2.649015e+02 -1.445525e+00 1.055031e-04 5.933733e-05 1.653842e-02 -1.129870e-02
2.649042e+02 -1.420715e+00 4.930226e-04 -2.593515e-04 -1.616681e-02 6.359399e-03
2.649084e+02 -1.377975e+00 -3.581249e-04 2.040993e-04 -3.259408e-03 1.113551e-02
2.649106e+02 -1.375383e+00 6.654165e-05 -4.672565e-04 -6.563266e-04 -7.279623e-05
2.649161e+02 -1.295856e+00 -2.100457e-04 -4.984824e-05 8.826251e-03 4.972797e-03
2.649186e+02 -1.275752e+00 1.536185e-04 2.890711e-04 -1.949447e-02 5.560053e-03
2.649261e+02 -1.904155e+00 -2.030246e-04 -5.316118e-04 -9.255598e-03 2.028009e-02
2.649358e+02 -1.811790e+00 5.398130e-06 -9.198449e-05 5.665124e-03 1.426514e-02
2.649479e+02 -1.814426e+00 1.620384e-04 4.628599e-04 -2.389398e-03 -9.206793e-03
2.648540e+02 -1.748338e+00 -1.283547e-04 -2.115256e-04 7.267710e-03 1.845014e-03
2.648719e+02 -1.712219e+00 -2.617439e-04 -2.128979e-04 -5.659726e-04 -2.364737e-02
2.648714e+02 -1.687772e+00 5.416733e-04 3.274290e-04 1.527438e-02 -2.027242e-02
2.648864e+02 -1.628619e+00 2.431295e-04 -4.303853e-05 -2.058489e-02 2.336011e-03
2.648802e+02 -1.618440e+00 -7.170952e-05 3.747697e-04 -9.048412e-03 7.906343e-03
2.648950e+02 -1.555819e+00 3.237968e-04 -1.247564e-04 -6.058541e-03 -3.646153e-03
2.648869e+02 -1.533510e+00 -4.358817e-04 2.971736e-04 3.900099e-03 1.855852e-03
2.649022e+02 -1.483419e+00 1.182576e-04 1.402265e-04 -4.061163e-03 -1.922243e-02
2.648929e+02 -1.478775e+00 3.495587e-04 4.243333e-04 -1.633802e-02 1.352948e-02
2.649091e+02 -1.447858e+00 -4.165040e-05 -4.580773e-04 -2.599027e-03 2.723543e-02
2.648988e+02 -1.387152e+00 2.873444e-05 -2.911554e-04 -2.771072e-02 -1.130750e-02
2.649165e+02 -1.336306e+00 -2.624036e-04 1.763192e-04 -1.022846e-02 -2.917344e-03
2.649051e+02 -1.293905e+00 -5.871259e-04 -3.085144e-05 2.164532e-03 -1.001127e-02
2.649253e+02 -1.287444e+00 1.043364e-04 3.985031e-04 1.360519e-02 -3.074103e-03
2.649135e+02 -1.849868e+00 -5.269878e-05 -1.251829e-04 1.603921e-02 -1.551329e-02
2.649384e+02 -1.807843e+00 5.515063e-05 1.888854e-05 -1.315636e-02 6.840524e-03
2.649532e+02 -1.889647e+00 -4.302146e-04 7.742462e-04 -7.053394e-03 2.350304e-02
2.648530e+02 -1.816820e+00 -1.178696e-04 -6.311839e-04 -1.623227e-02 -5.483687e-03
2.648341e+02 -1.702354e+00 5.655134e-04 -7.827575e-05 -1.236198e-03 1.564653e-03
2.648797e+02 -1.671476e+00 -3.210597e-04 -2.133477e-04 3.058701e-04 -1.227408e-02
2.648630e+02 -1.634133e+00 2.836531e-04 1.981827e-04 1.136698e-02 -6.309633e-03
2.648949e+02 -1.607127e+00 1.537541e-04 -3.149919e-04 -5.342621e-03 4.561614e-03
2.648731e+02 -1.552580e+00 -1.186571e-04 6.423438e-05 4.164854e-03 9.195198e-03
2.649031e+02 -1.513300e+00 -3.387408e-04 -1.795576e-05 6.692277e-03 -2.834650e-03
2.648804e+02 -1.484035e+00 -3.250821e-04 -1.459955e-04 2.649396e-02 -1.197169e-02
2.649104e+02 -1.439375e+00 1.839662e-04 2.533749e-05 1.072262e-03 1.181732e-02
2.648867e+02 -1.417244e+00 5.896723e-04 -2.540153e-04 1.956506e-02 1.036617e-02
2.649178e+02 -1.367315e+00 -2.644550e-05 -5.791025e-05 -6.156018e-03 -2.527456e-02
2.648926e+02 -1.372795e+00 3.073558e-04 4.456517e-04 9.267147e-03 -3.808965e-02
2.649263e+02 -1.302854e+00 9.824934e-05 -2.500693e-04 -2.799958e-03 9.212500e-03
2.648991e+02 -1.259159e+00 -1.935523e-04 1.359345e-04 7.458638e-03 1.594014e-02
2.649380e+02 -1.844749e+00 2.648219e-04 -9.842798e-05 -1.184585e-02 -1.273716e-02
2.649108e+02 -1.821804e+00 -3.722555e-05 2.799328e-04 -9.571945e-04 -6.061518e-03
2.649785e+02 -1.820431e+00 1.005698e-03 4.773247e-04 3.875032e-03 -5.472198e-02
2.649251e+02 -1.738321e+00 -8.033712e-05 -1.687407e-04 -1.811714e-02 4.189296e-03
2.648537e+02 -1.702173e+00 -3.481196e-04 1.153700e-04 -1.806172e-02 -1.254683e-02
2.649305e+02 -1.801560e+00 4.936978e-04 8.530404e-04 -7.734053e-03 -9.071286e-03
2.648674e+02 -1.704445e+00 -4.260145e-06 -6.387633e-04 6.964694e-03 8.650666e-03
2.649388e+02 -1.584187e+00 -3.118489e-04 1.036465e-05 -3.155152e-03 -1.789398e-02
2.648766e+02 -1.619513e+00 4.287797e-04 5.917262e-04 1.160308e-02 -1.620334e-02
2.649536e+02 -1.517227e+00 1.831910e-04 1.799553e-04 -2.656224e-02 6.056785e-03
2.648839e+02 -1.475679e+00 3.663359e-04 5.518465e-05 -8.584775e-03 -1.029722e-03
2.648468e+02 -1.452729e+00 2.585173e-04 -2.416034e-04 1.402923e-02 1.738270e-02
2.648949e+02 -1.406172e+00 3.516507e-05 -1.689991e-04 3.197439e-03 -5.453008e-03
2.648639e+02 -1.374656e+00 -2.600923e-04 2.147898e-04 1.424730e-02 -7.435400e-04
2.649042e+02 -1.330892e+00 -1.790254e-04 -1.436130e-04 -1.270089e-02 9.325026e-03
2.648730e+02 -1.298290e+00 -9.308850e-04 1.974436e-04 -1.105695e-03 3.003228e-03
2.649118e+02 -1.282721e+00 1.790645e-04 -3.937572e-04 2.199201e-03 -1.017576e-02
2.648800e+02 -1.843039e+00 -1.129911e-04 2.780137e-05 1.115244e-02 -3.716717e-03
2.649194e+02 -1.811041e+00 1.002001e-04 1.769006e-04 -6.795886e-03 1.863746e-02
2.648861e+02 -1.832189e+00 -6.818501e-05 -5.642422e-04 -1.841797e-02 -7.390678e-04
2.649281e+02 -1.730115e+00 7.029350e-04 -5.601857e-05 -4.570779e-03 6.423240e-03
2.648921e+02 -1.697058e+00 1.858577e-04 -1.194063e-04 7.957451e-03 -9.341467e-04
2.649401e+02 -1.676527e+00 -1.033442e-04 3.185596e-04 2.256479e-02 5.260637e-03
2.648995e+02 -1.640541e+00 -1.896984e-04 -3.135957e-04 1.243573e-02 -1.663735e-02
2.648324e+02 -1.587797e+00 -1.402453e-05 -7.914281e-05 2.135247e-03 1.344049e-02
2.649070e+02 -1.547817e+00 1.155837e-05 4.898737e-05 -1.819214e-02 -1.609281e-02
2.648617e+02 -1.582729e+00 -3.811015e-04 6.009865e-04 -8.492462e-03 -1.233431e-02
2.649131e+02 -1.480148e+00 2.925303e-04 -2.109287e-04 4.491866e-03 1.448434e-03
2.648731e+02 -1.477363e+00 9.143153e-05 -4.551256e-04 7.454568e-03 -4.064531e-03
2.649192e+02 -1.398215e+00 -2.100227e-04 -2.857771e-05 1.752658e-02 1.666231e-03
2.648815e+02 -1.376000e+00 4.472536e-05 2.646462e-04 -9.135674e-03 1.109088e-03
2.649261e+02 -1.359551e+00 -2.737782e-04 -4.279619e-04 4.999956e-04 1.323310e-02
2.648890e+02 -1.291184e+00 5.459630e-04 2.832861e-05 1.817841e-02 2.750226e-02
2.649350e+02 -1.252805e+00 -9.186247e-05 1.379797e-04 -7.254697e-03 -1.108964e-02
2.648966e+02 -1.852023e+00 -3.289736e-04 -2.309447e-04 6.414412e-03 2.443491e-02
2.649515e+02 -1.801333e+00 1.737401e-04 -5.319320e-05 -1.317517e-02 -9.590649e-03
2.649061e+02 -1.786238e+00 -1.098760e-04 3.263650e-04 -2.943647e-03 -3.997099e-03
2.648426e+02 -1.740084e+00 5.402497e-04 -1.948563e-04 -7.905335e-04 -2.125264e-02
2.649182e+02 -1.708607e+00 -3.851857e-04 2.950797e-04 1.060931e-02 -1.166153e-02
2.648592e+02 -1.657941e+00 -4.697991e-05 -8.314900e-06 -2.074608e-02 6.227782e-03
2.649252e+02 -1.618376e+00 -3.684166e-04 -9.592990e-05 -7.427881e-03 2.979191e-05
2.648676e+02 -1.599395e+00 2.080826e-04 2.944380e-04 3.347919e-03 5.339098e-03
2.649347e+02 -1.610210e+00 -1.238332e-04 -5.724803e-04 2.157339e-02 2.549326e-02
2.648723e+02 -1.526059e+00 1.715127e-04 -2.860653e-04 -1.855978e-02 -1.613362e-02
2.649507e+02 -1.472030e+00 -1.373342e-04 1.507370e-04 -4.323397e-03 -6.810860e-03
2.648930e+02 -1.481696e+00 1.232591e-05 4.845892e-04 2.461639e-02 -1.005374e-02
2.648631e+02 -1.400087e+00 3.071290e-04 9.827826e-05 -1.097262e-02 8.824450e-03
2.649002e+02 -1.358875e+00 6.815337e-05 5.522987e-06 1.391784e-03 2.273064e-03
2.648749e+02 -1.398417e+00 -3.179210e-04 6.115389e-04 1.783106e-02 1.227089e-02
2.649062e+02 -1.286567e+00 -2.738251e-04 5.654419e-05 -1.634314e-02 1.212153e-02
2.648834e+02 -1.255132e+00 -5.336957e-04 -1.773030e-04 -2.951411e-03 6.543904e-03
2.649121e+02 -1.848929e+00 1.180251e-04 2.437383e-04 8.366137e-03 1.119735e-02
2.648907e+02 -1.817673e+00 2.657435e-04 -2.921866e-04 1.404267e-04 -7.388949e-03
2.649185e+02 -1.764479e+00 -2.487551e-05 9.665174e-05 9.111921e-03 -1.658272e-03
2.648977e+02 -1.731960e+00 2.931030e-05 -1.291426e-04 -9.900992e-03 2.510851e-02
2.649262e+02 -1.813749e+00 3.201332e-04 7.878345e-04 -3.125298e-02 -4.374656e-03
2.649053e+02 -1.662499e+00 -1.123137e-04 -2.260480e-04 -5.986408e-03 7.675145e-03
2.649379e+02 -1.639110e+00 -3.667215e-04 -3.587877e-04 -4.467689e-03 2.567204e-03
2.649150e+02 -1.578766e+00 2.282900e-04 6.137394e-05 6.317899e-03 7.272666e-03
2.648768e+02 -1.547189e+00 -1.112031e-04 -8.348627e-05 3.336006e-04 3.215994e-02
2.648599e+02 -1.508562e+00 1.381019e-04 6.927802e-05 -1.894419e-02 -4.996936e-03
2.648876e+02 -1.527512e+00 -1.852605e-04 5.469050e-04 -9.574137e-03 7.151081e-04
2.648750e+02 -1.449480e+00 1.836116e-05 -2.930001e-04 1.526500e-02 -1.951410e-03
2.648946e+02 -1.418053e+00 -1.516243e-04 3.374326e-04 8.095213e-03 -2.163916e-02
2.648841e+02 -1.404687e+00 1.020164e-04 4.859847e-04 -1.347158e-02 3.551567e-03
2.649006e+02 -1.331663e+00 -2.020541e-04 -2.400719e-04 -1.514948e-03 1.363102e-02
2.648916e+02 -1.289359e+00 -5.341952e-05 -1.711225e-04 -9.052423e-03 -7.142480e-03
2.649064e+02 -1.265526e+00 7.824139e-04 3.180946e-04 1.785706e-03 -3.314630e-03
2.648984e+02 -1.841985e+00 9.106550e-05 -8.130360e-05 3.574355e-02 2.280044e-02
2.649125e+02 -1.800304e+00 -4.567963e-04 9.579985e-05 2.952903e-03 -1.813782e-02
2.649054e+02 -1.765034e+00 2.825672e-04 1.319418e-04 -1.585568e-02 3.126540e-04
2.649197e+02 -1.825705e+00 -2.801840e-05 7.193846e-04 -6.890023e-03 7.864418e-03
2.649133e+02 -1.686866e+00 3.064425e-04 3.509667e-05 -2.475660e-03 -5.243406e-03
2.649302e+02 -1.666556e+00 2.272885e-04 -2.818434e-04 2.249883e-02 1.300075e-02
2.649241e+02 -1.618027e+00 1.053082e-04 -1.640886e-04 9.366547e-03 -1.056115e-02
2.648719e+02 -1.596617e+00 -2.327204e-04 2.922082e-04 2.530608e-02 -6.974969e-03
2.648727e+02 -1.541537e+00 -3.449375e-04 -3.619773e-05 -9.858867e-03 1.100205e-02
2.648821e+02 -1.505656e+00 -1.962876e-04 -1.107699e-04 2.788275e-03 -2.265781e-03
2.648840e+02 -1.494206e+00 4.911512e-04 3.690062e-04 1.893746e-02 3.895880e-03
2.648892e+02 -1.435096e+00 -5.261337e-04 1.678368e-04 6.515163e-03 -1.215746e-02
2.648920e+02 -1.395830e+00 2.361024e-08 6.633304e-05 2.376151e-02 -2.079681e-02
2.648953e+02 -1.360017e+00 1.461575e-06 1.624952e-04 -3.703826e-04 4.746878e-03
2.648991e+02 -1.327678e+00 1.539949e-04 2.132543e-04 -9.044605e-03 -1.648189e-02
2.649010e+02 -1.333506e+00 -1.626051e-04 -5.173279e-04 1.727726e-03 -5.790202e-03
2.649059e+02 -1.245026e+00 5.206912e-04 -7.118019e-05 1.471439e-02 3.585990e-04
2.649071e+02 -1.838663e+00 -3.285922e-04 1.121143e-04 -1.035027e-02 3.281736e-02
2.649132e+02 -1.868696e+00 2.234838e-04 -6.094839e-04 -2.343593e-03 5.532824e-03
2.649141e+02 -1.760438e+00 -9.793094e-05 -9.476916e-05 7.531053e-03 9.144504e-03
2.649219e+02 -1.722949e+00 1.245413e-04 2.971617e-05 -1.166615e-02 -2.154925e-02
2.649247e+02 -1.735637e+00 -2.163960e-04 5.082154e-04 -1.997502e-04 -1.632217e-02
2.649355e+02 -1.663308e+00 4.906659e-04 -2.881561e-04 1.306176e-02 -3.700141e-03
2.648650e+02 -1.615005e+00 -3.238242e-04 -5.505632e-05 -2.001338e-02 -1.200503e-02
2.648822e+02 -1.604930e+00 3.436753e-04 3.882694e-04 -6.604243e-03 -5.195941e-03
2.648760e+02 -1.567532e+00 -5.161861e-04 -3.833793e-04 4.685272e-03 7.268465e-03
2.648921e+02 -1.503420e+00 1.755780e-04 9.243860e-05 1.544242e-02 1.187434e-02
2.648834e+02 -1.476344e+00 8.686271e-05 2.465212e-04 -3.448040e-03 -9.936712e-03
2.648997e+02 -1.461533e+00 -2.096206e-04 -4.216943e-04 6.848647e-03 -5.598066e-06
2.648897e+02 -1.391706e+00 5.262074e-04 -1.159043e-06 2.369750e-02 7.392385e-03
2.649067e+02 -1.360046e+00 -6.712746e-05 1.627779e-04 -2.171881e-03 -2.982221e-02
2.648956e+02 -1.318861e+00 5.807178e-05 -9.562877e-05 -2.169295e-02 -4.850434e-04
2.649138e+02 -1.299317e+00 -2.505959e-04 3.268992e-04 -1.082231e-02 5.277758e-03
2.649016e+02 -1.356438e+00 7.412358e-04 -7.518201e-04 1.518309e-03 3.311423e-02
2.649219e+02 -1.861146e+00 -1.511254e-04 -3.702832e-04 -3.049414e-02 -2.234556e-02
2.649088e+02 -1.810146e+00 8.016628e-04 2.836122e-04 -1.216138e-02 -1.308604e-02
2.649326e+02 -1.756018e+00 2.763162e-04 -3.214068e-05 4.823031e-03 -1.339345e-02
2.649225e+02 -1.755297e+00 -1.748797e-05 4.234225e-04 1.731390e-02 -9.177094e-03
2.649583e+02 -1.691213e+00 4.937092e-04 -1.968993e-04 1.193857e-02 -3.132886e-02
2.649430e+02 -1.644205e+00 -1.231045e-04 1.226496e-05 -1.065231e-02 1.988757e-03
2.648529e+02 -1.612155e+00 -3.368090e-04 -7.169696e-05 4.891382e-04 -3.505050e-03
2.649529e+02 -1.593296e+00 2.461768e-04 3.442874e-04 1.219806e-02 1.867071e-03
2.648650e+02 -1.542501e+00 1.753505e-04 -1.704757e-04 -4.778187e-03 4.942439e-03
2.648545e+02 -1.508447e+00 -9.312416e-05 1.999456e-04 4.650955e-03 1.030980e-02
2.648910e+02 -1.494808e+00 -2.164966e-04 -4.018076e-04 -1.937089e-02 -9.510667e-03
2.648682e+02 -1.426864e+00 4.174281e-04 7.804368e-05 -4.623923e-03 -2.198009e-03
2.649004e+02 -1.387421e+00 2.629397e-05 -1.054043e-05 6.704762e-03 -7.107121e-03
2.648766e+02 -1.377751e+00 1.011647e-04 -3.643425e-04 -8.994638e-03 2.081989e-03
2.649079e+02 -1.313144e+00 -1.681460e-04 2.987606e-05 1.026098e-03 6.661835e-03
2.648832e+02 -1.299345e+00 2.294124e-04 -3.318387e-04 6.588634e-03 -1.171605e-02
2.649152e+02 -1.241006e+00 -7.697051e-05 8.922621e-05 1.585897e-02 -5.267846e-03
2.648893e+02 -1.833286e+00 1.401085e-04 -1.289801e-04 -2.332112e-03 1.800494e-02
2.649232e+02 -1.845457e+00 3.709601e-04 5.242817e-04 -1.374438e-02 -7.650591e-03
2.648954e+02 -1.765461e+00 -6.618399e-06 -2.321517e-04 -3.093958e-04 4.213131e-03
2.649333e+02 -1.800624e+00 6.100446e-04 6.360128e-04 4.094167e-03 -3.874097e-02
2.649029e+02 -1.683661e+00 1.906100e-04 5.859890e-05 2.802779e-02 -3.614412e-03
2.649513e+02 -1.676583e+00 8.388936e-04 -4.088196e-04 -1.172477e-02 2.476420e-02
2.649111e+02 -1.625120e+00 -4.525768e-04 3.003845e-04 -1.862607e-02 -3.526088e-03
2.648522e+02 -1.616699e+00 2.520658e-04 -4.740792e-04 -4.363776e-03 8.723494e-03
2.649168e+02 -1.532666e+00 -6.113833e-05 -2.280854e-05 5.792285e-03 1.222117e-02
2.648672e+02 -1.501153e+00 4.354602e-05 1.100965e-04 -1.296400e-02 -1.658614e-02
2.649229e+02 -1.680450e+00 -5.242220e-04 1.058194e-03 -4.679632e-03 -2.187813e-02
2.648767e+02 -1.449953e+00 1.659005e-04 -3.486417e-04 2.959608e-02 -8.040980e-03
2.649302e+02 -1.390035e+00 -1.919851e-04 1.627089e-04 -2.030612e-02 -2.922981e-04
2.648847e+02 -1.395042e+00 2.621354e-05 4.840033e-04 4.482882e-03 -7.585032e-04
2.649403e+02 -1.321014e+00 -3.059963e-04 -2.320357e-04 1.658323e-02 1.134694e-02
2.648923e+02 -1.281689e+00 -1.152034e-04 -1.865029e-04 -3.575328e-03 -1.060698e-02
2.649659e+02 -1.246737e+00 5.757863e-04 2.499671e-04 8.883588e-03 -7.186112e-03
2.649018e+02 -1.831542e+00 1.350808e-04 -8.863275e-05 -3.162235e-02 1.450378e-02
2.648553e+02 -1.797846e+00 -5.758261e-04 1.140110e-04 1.445243e-02 -3.190742e-02
2.649108e+02 -1.754391e+00 1.929725e-04 1.044039e-04 2.565962e-03 -1.070211e-02
2.648665e+02 -1.745229e+00 1.680444e-04 3.671458e-04 -7.099972e-03 2.155214e-02
2.649185e+02 -1.682498e+00 -1.248543e-05 1.485108e-04 -1.287682e-02 3.839185e-03
2.648741e+02 -1.643204e+00 -4.242868e-04 -4.913452e-05 -1.551134e-03 -1.238873e-03
2.649268e+02 -1.629412e+00 1.678920e-04 3.614421e-04 9.706311e-03 4.347315e-03
2.648801e+02 -1.572546e+00 -1.961798e-04 -1.335774e-04 1.079454e-02 -6.897141e-03
2.649376e+02 -1.529661e+00 2.362561e-04 -3.320562e-06 -7.296915e-03 1.449699e-02
2.648844e+02 -1.577116e+00 -3.170338e-04 -6.463431e-04 -7.314449e-03 3.976355e-03
2.649600e+02 -1.455814e+00 3.408939e-04 -9.130258e-05 5.321180e-03 8.368284e-03
2.648954e+02 -1.435816e+00 -5.719531e-04 -2.813467e-04 -6.525660e-03 -5.707518e-03
2.648557e+02 -1.389484e+00 1.104292e-04 1.516413e-04 5.003900e-03 7.484614e-04
2.649028e+02 -1.370354e+00 3.929855e-04 3.327401e-04 -3.659489e-03 -2.975017e-02
2.648702e+02 -1.366347e+00 -2.492553e-05 -5.293810e-04 9.342397e-03 -1.210834e-02
2.649088e+02 -1.290990e+00 3.361347e-05 -3.074504e-04 -1.140304e-02 1.191956e-02
2.648795e+02 -1.239314e+00 -2.810700e-04 1.088694e-04 -9.804614e-04 1.848696e-02
2.649148e+02 -1.839226e+00 -1.141142e-04 2.763455e-04 -9.178416e-03 -1.222945e-02
2.648871e+02 -1.788615e+00 -6.368122e-04 1.398957e-05 1.524909e-02 5.205422e-03
2.649214e+02 -1.754766e+00 -4.993700e-05 -1.057709e-04 3.272688e-02 -2.686260e-03
2.648943e+02 -1.715594e+00 7.376528e-05 5.937728e-05 -4.614972e-03 2.059343e-02
2.649295e+02 -1.676733e+00 -1.538144e-04 -6.163172e-05 -1.108851e-02 -1.510853e-02
2.649018e+02 -1.695541e+00 6.828632e-04 5.308261e-04 1.935696e-04 -1.456979e-02
2.649423e+02 -1.625829e+00 -3.236599e-04 -3.565079e-04 1.090013e-02 1.436633e-03
2.649114e+02 -1.571004e+00 4.478414e-04 1.147287e-04 3.203824e-02 1.037031e-02
2.648823e+02 -1.545355e+00 5.625818e-06 2.724671e-04 1.338065e-02 -1.658030e-02
2.648692e+02 -1.494004e+00 3.197912e-04 -1.561950e-05 -1.809928e-02 9.280125e-04
2.648906e+02 -1.473840e+00 1.622629e-04 -3.000619e-04 4.358788e-03 1.821485e-02
2.648802e+02 -1.421035e+00 7.168398e-05 -9.793750e-05 -1.360538e-02 -4.769302e-03
2.648970e+02 -1.396327e+00 -2.048275e-04 2.805026e-04 -3.990372e-03 3.843112e-04
2.648883e+02 -1.411844e+00 5.837340e-04 -5.796377e-04 1.063021e-02 1.736146e-02
2.649028e+02 -1.334428e+00 -1.043578e-04 -3.526869e-04 -1.844032e-02 -2.687549e-02
2.648953e+02 -1.272439e+00 -5.535441e-04 1.037348e-04 -1.008469e-02 -4.353656e-03
2.649087e+02 -1.291817e+00 1.281946e-04 5.486259e-04 2.639051e-03 1.949791e-03
2.649022e+02 -1.822104e+00 -2.817863e-05 -5.553917e-07 3.770878e-03 -8.421058e-03
2.649152e+02 -1.791014e+00 -6.870476e-04 -1.482681e-04 1.069014e-02 -2.561915e-02
2.649095e+02 -1.783750e+00 2.280074e-04 4.143654e-04 2.333599e-02 -1.348033e-02
2.649234e+02 -1.711595e+00 6.102050e-04 5.985534e-05 -1.530960e-02 7.949822e-03
2.649184e+02 -1.696759e+00 1.392115e-04 -3.167790e-04 1.302540e-02 3.188375e-02
2.649386e+02 -1.639487e+00 2.167365e-04 -1.452616e-04 7.064028e-04 5.997413e-04
2.649337e+02 -1.609129e+00 -4.751502e-05 2.260747e-04 1.045934e-02 5.832948e-03
2.648603e+02 -1.586570e+00 -2.562694e-04 -3.250524e-04 2.698139e-03 -1.360719e-02
2.648620e+02 -1.531462e+00 3.884921e-04 1.134053e-04 1.476802e-02 -7.655573e-03
2.648768e+02 -1.493829e+00 -8.587042e-05 -1.135124e-04 -5.624408e-03 1.588625e-02
2.648793e+02 -1.489845e+00 7.105708e-04 -4.202915e-04 -2.223121e-02 5.386166e-03
2.648851e+02 -1.420522e+00 -3.004557e-04 1.454598e-04 -3.374405e-03 8.466358e-03
2.648885e+02 -1.398655e+00 1.212038e-05 -3.155589e-04 -1.005769e-03 -2.499623e-03
2.648916e+02 -1.342724e+00 -2.615264e-04 5.593862e-05 8.540442e-03 2.588967e-03
2.648959e+02 -1.315569e+00 8.882458e-05 2.220021e-04 -1.859681e-02 -4.368158e-03
2.648975e+02 -1.325299e+00 -2.465559e-04 -5.381879e-04 -8.976261e-03 7.681425e-03
2.649028e+02 -1.231606e+00 4.019290e-04 -5.589712e-05 3.617688e-03 1.260982e-02
2.649033e+02 -1.823798e+00 -7.406570e-05 9.321136e-05 -1.897972e-02 -2.075170e-02
2.649098e+02 -1.786914e+00 4.967138e-05 -1.376545e-04 1.518268e-02 5.819816e-03
2.649097e+02 -1.812477e+00 2.891153e-04 5.727541e-04 -7.387091e-03 -2.614007e-02
2.649176e+02 -1.721581e+00 -9.039983e-05 -2.596416e-04 4.876728e-03 -6.650424e-03
2.649178e+02 -1.675704e+00 -2.006421e-04 -1.134148e-04 -3.811171e-03 2.549512e-02
2.649279e+02 -1.641959e+00 5.634109e-04 7.173839e-05 -4.562302e-02 -1.586141e-02
2.649368e+02 -1.642591e+00 -2.725400e-05 4.816226e-04 -1.273217e-02 -2.304572e-03
2.649537e+02 -1.567908e+00 3.828543e-04 -2.051664e-04 -1.073160e-02 -1.521741e-02
2.648682e+02 -1.537778e+00 -4.441212e-04 2.463245e-04 8.027748e-04 -8.064570e-03
2.648785e+02 -1.544776e+00 2.176013e-04 -5.322451e-04 1.421976e-02 3.909908e-03
2.648787e+02 -1.454399e+00 -1.425890e-04 -4.838701e-05 2.764017e-02 1.094780e-02
2.648888e+02 -1.417228e+00 1.129889e-04 9.893845e-05 3.525547e-03 -2.204543e-02
2.648860e+02 -1.401960e+00 3.172002e-04 3.454958e-04 -1.903129e-02 1.043882e-02
2.648965e+02 -1.395729e+00 -5.638947e-05 -5.237203e-04 -6.401674e-03 2.516711e-02
2.648921e+02 -1.306864e+00 -2.205285e-04 1.343712e-04 -1.298402e-02 -4.743341e-03
2.649035e+02 -1.343686e+00 1.984233e-04 6.240847e-04 1.394207e-02 -1.751356e-02
2.648979e+02 -1.243824e+00 -1.803137e-04 -2.609904e-04 2.431424e-02 -2.328467e-03
2.649105e+02 -1.854131e+00 6.766788e-06 -2.091590e-05 -5.830444e-03 -1.543694e-03
2.649040e+02 -1.850369e+00 -3.095664e-04 4.087805e-04 3.654732e-03 3.970767e-03
2.649181e+02 -1.783254e+00 5.087393e-04 -1.293126e-04 -4.484195e-03 -8.769881e-03
2.649111e+02 -1.793277e+00 1.091189e-04 -4.950665e-04 2.176337e-02 1.094126e-02
2.649278e+02 -1.711359e+00 2.411544e-04 1.595532e-04 8.843308e-03 -1.615390e-02
2.649227e+02 -1.693560e+00 4.787530e-05 3.513677e-04 -1.262664e-04 1.415798e-02
2.649456e+02 -1.637896e+00 1.792091e-04 -1.898579e-04 -7.839240e-03 -4.856984e-03
2.648597e+02 -1.603431e+00 -8.787823e-05 1.715755e-04 1.601282e-03 2.439445e-04
2.648874e+02 -1.574449e+00 -2.202290e-04 2.539677e-04 -8.276172e-03 -2.624839e-02
2.648718e+02 -1.524794e+00 -3.409170e-04 -6.675554e-05 1.513276e-02 -5.114625e-03
2.648969e+02 -1.494925e+00 -3.468159e-04 -1.991091e-04 2.195761e-02 -1.403297e-02
2.648797e+02 -1.449175e+00 1.561098e-04 -1.511484e-05 -1.512945e-03 9.761549e-03
2.649044e+02 -1.549088e+00 -3.181901e-04 -8.355641e-04 1.485644e-04 -1.282449e-02
2.648861e+02 -1.377631e+00 4.216775e-04 -1.141618e-04 1.182595e-02 -2.479021e-03
2.649115e+02 -1.338186e+00 -5.045429e-05 3.037720e-05 -8.718119e-03 2.057745e-02
2.648921e+02 -1.309948e+00 -4.389090e-04 -2.093068e-04 4.802700e-03 1.622694e-02
2.649190e+02 -1.278844e+00 1.264066e-04 -2.903319e-04 -3.134160e-03 7.415975e-04
2.648982e+02 -1.853715e+00 -1.385690e-04 7.684717e-05 6.065920e-03 5.571436e-03
2.649280e+02 -1.827912e+00 -9.741388e-06 2.584028e-04 -1.404036e-03 -1.553849e-02
2.649056e+02 -1.805775e+00 -3.717239e-04 -3.601121e-04 -1.347878e-02 2.211119e-02
2.649415e+02 -1.742440e+00 -1.352990e-04 -9.564709e-05 -1.892130e-02 -5.763311e-03
2.649251e+02 -1.747901e+00 7.032236e-04 4.735580e-04 -1.121728e-02 -1.586661e-04
2.648095e+02 -1.673722e+00 9.952877e-05 4.623292e-05 1.434824e-02 1.723916e-02
2.649220e+02 -1.637477e+00 -3.857083e-04 1.913306e-04 -6.518303e-03 -1.457288e-02
2.648589e+02 -1.597210e+00 -2.672397e-04 -3.836309e-05 -5.924063e-03 -2.069752e-02
2.649279e+02 -1.617834e+00 5.297487e-04 5.563370e-04 8.624546e-03 -1.989528e-02
2.648707e+02 -1.522138e+00 5.278842e-04 1.360775e-05 -1.383125e-02 -1.275124e-02
2.649358e+02 -1.525148e+00 -3.591626e-04 4.725631e-04 -1.364000e-03 -5.387453e-03
2.648793e+02 -1.460191e+00 2.791214e-04 -2.575498e-04 9.925331e-03 6.033900e-03
2.649485e+02 -1.415884e+00 -2.158377e-05 1.852477e-04 2.535989e-02 1.447473e-02
2.648870e+02 -1.374229e+00 3.448936e-05 -7.480829e-05 1.154350e-03 -1.529781e-02
2.648423e+02 -1.367340e+00 -3.037728e-04 3.813823e-04 1.353965e-02 -1.256881e-02
2.648967e+02 -1.303440e+00 -7.158186e-04 1.000797e-04 -3.177959e-02 9.706674e-03
2.648620e+02 -1.276917e+00 -1.311946e-04 -2.476894e-04 3.778359e-03 2.569696e-02
2.649060e+02 -1.857670e+00 -1.851111e-04 -1.902157e-04 -1.528351e-02 3.529394e-04
2.648714e+02 -1.824997e+00 4.389348e-04 2.287470e-04 -4.719088e-03 6.343381e-03
2.649136e+02 -1.777629e+00 -6.526794e-04 9.549943e-05 -3.855166e-03 -9.247882e-03
2.648785e+02 -1.796751e+00 8.254024e-05 5.337785e-04 8.915755e-03 -2.048464e-03
2.649214e+02 -1.702035e+00 -6.947769e-05 -1.345176e-05 9.430051e-03 -1.256726e-02
2.648846e+02 -1.668852e+00 1.339011e-04 1.116383e-04 -8.052426e-03 7.706750e-03
2.649305e+02 -1.652450e+00 -1.180222e-06 -3.587419e-04 -6.594722e-03 -2.934894e-03
2.648905e+02 -1.596755e+00 1.311425e-04 -1.563987e-04 5.627254e-03 -2.569487e-03
2.649439e+02 -1.564169e+00 -1.516867e-04 2.348068e-04 1.732113e-02 2.692205e-03
2.648982e+02 -1.520031e+00 -6.236001e-05 -1.117025e-04 -1.189844e-04 3.814013e-03
2.648437e+02 -1.499346e+00 3.536507e-04 -2.838963e-04 2.468503e-03 -9.236436e-03
2.649057e+02 -1.448588e+00 -4.597356e-04 1.542305e-04 1.387171e-02 -3.626855e-03
2.648646e+02 -1.422783e+00 -3.929434e-04 -2.604283e-04 -1.732050e-02 8.325248e-03
2.649118e+02 -1.376230e+00 2.604944e-04 1.834430e-04 -3.671347e-03 1.266486e-02
2.648751e+02 -1.344995e+00 1.693764e-05 2.306579e-04 -1.182527e-02 -8.688912e-03
2.649179e+02 -1.340042e+00 -3.078443e-04 -4.783417e-04 -2.228861e-03 1.877241e-03
2.648833e+02 -1.260031e+00 3.033740e-04 -2.619562e-05 8.716285e-03 6.922539e-03
2.649247e+02 -1.854322e+00 -1.784925e-04 1.431174e-04 -1.415636e-02 -3.052297e-02
2.648907e+02 -1.816471e+00 1.046205e-04 -1.295666e-04 2.376997e-02 1.362832e-03
2.649333e+02 -1.807700e+00 -2.915900e-04 4.073234e-04 -2.679427e-02 9.596196e-03
2.648982e+02 -1.797134e+00 6.492015e-05 -5.483625e-04 5.332706e-03 1.329371e-02
2.649484e+02 -1.702558e+00 -3.237942e-04 -9.645247e-05 2.022588e-02 2.308308e-02
2.649077e+02 -1.664679e+00 2.100230e-04 6.275709e-05 -1.434902e-02 -1.290387e-02
2.648252e+02 -1.677784e+00 -9.813445e-05 4.923287e-04 -3.749017e-03 -7.348252e-03
2.649259e+02 -1.603882e+00 6.783126e-04 -2.802738e-04 1.022118e-02 5.156380e-03
2.648546e+02 -1.556383e+00 -2.081155e-05 -5.491982e-05 -2.104968e-02 -3.302827e-03
2.649292e+02 -1.517375e+00 1.174085e-05 9.223894e-05 1.254472e-02 2.054195e-02
2.648635e+02 -1.486511e+00 -5.210888e-04 -1.715801e-04 -9.648852e-03 -1.097022e-02
2.649397e+02 -1.450261e+00 1.412910e-04 2.331891e-04 2.702217e-03 -3.269034e-03
2.648618e+02 -1.454306e+00 -1.631801e-04 -4.883531e-04 1.583808e-02 8.423795e-03
2.649694e+02 -1.368343e+00 -2.161744e-04 1.272604e-04 4.899958e-03 -1.720259e-02
2.648770e+02 -1.365061e+00 -8.574862e-05 3.989262e-04 -2.038245e-02 1.578343e-02
2.648342e+02 -1.303846e+00 3.647725e-04 1.828757e-04 -1.411394e-02 -1.156498e-03
2.648921e+02 -1.257226e+00 1.026192e-04 -3.279759e-05 -6.222371e-04 -5.510459e-03
2.648656e+02 -1.874898e+00 -1.774713e-04 3.713754e-04 9.727664e-03 -9.740615e-04
2.648992e+02 -1.862781e+00 3.424954e-05 -5.143465e-04 -2.299633e-02 4.947461e-03
2.648767e+02 -1.773311e+00 -2.518410e-04 7.306495e-06 -6.942411e-03 8.736463e-03
2.649053e+02 -1.736434e+00 -5.504921e-04 -9.247006e-05 -5.687249e-03 3.763087e-03
2.648849e+02 -1.718657e+00 1.008424e-04 3.158738e-04 5.907128e-03 8.711148e-03
2.649112e+02 -1.674789e+00 2.940002e-04 -2.574240e-04 -2.714016e-03 -2.022304e-02
2.648921e+02 -1.630626e+00 -4.168825e-05 1.706385e-04 7.370232e-03 -1.076470e-02
2.649175e+02 -1.591345e+00 6.105875e-05 -1.490064e-04 -1.041181e-02 1.183285e-02
2.648991e+02 -1.570213e+00 -2.862028e-04 3.067139e-04 -7.636951e-04 2.219505e-02
2.649251e+02 -1.526523e+00 -7.754480e-05 -2.700749e-04 -8.265894e-03 -7.539837e-04
2.649067e+02 -1.479456e+00 6.077916e-04 1.335638e-04 2.559151e-03 5.604915e-03
2.649365e+02 -1.476865e+00 -3.551453e-04 -4.454096e-04 4.129252e-03 -7.906932e-03
2.649166e+02 -1.402178e+00 2.854274e-04 2.150487e-05 1.446754e-02 -1.258055e-03
2.648762e+02 -1.368978e+00 3.442993e-04 -7.789586e-05 1.953494e-02 -8.237880e-03
2.648627e+02 -1.356651e+00 1.631218e-04 -3.609584e-04 -1.346749e-02 9.682870e-03
2.648867e+02 -1.293345e+00 -1.339327e-04 6.358231e-05 -2.083032e-03 1.356906e-02
2.648767e+02 -1.266386e+00 -4.113879e-04 -2.265931e-04 1.157645e-02 1.063988e-02
2.648937e+02 -1.867447e+00 4.378577e-05 -3.414638e-04 1.291297e-02 -3.861333e-03
2.648855e+02 -1.814108e+00 -4.109594e-04 1.102073e-04 3.754276e-02 2.787732e-03
2.648997e+02 -1.806464e+00 1.283574e-04 4.270321e-04 -1.596366e-02 1.403183e-03
2.648929e+02 -1.749356e+00 -1.764363e-04 -2.834657e-04 -3.862347e-03 1.171965e-02
2.649055e+02 -1.700341e+00 -3.685327e-05 -1.258113e-04 -1.359902e-02 -1.944800e-02
2.648997e+02 -1.660132e+00 2.545138e-05 2.316860e-05 1.961080e-02 4.246712e-03
2.649116e+02 -1.643432e+00 -7.532962e-04 3.302207e-04 -1.284853e-02 6.595189e-03
2.649068e+02 -1.647068e+00 1.200138e-04 -5.578187e-04 3.229244e-03 1.852091e-02
2.649188e+02 -1.552833e+00 -3.116989e-04 -7.919759e-05 2.041436e-02 3.250575e-02
2.649148e+02 -1.511612e+00 2.244179e-04 7.468325e-05 -5.213526e-03 -8.140200e-03
2.649292e+02 -1.526318e+00 -5.385876e-05 5.211510e-04 4.950429e-03 -3.620614e-03
2.649259e+02 -1.436640e+00 3.872052e-04 -9.442947e-06 -3.324369e-03 -1.614561e-02
2.648710e+02 -1.422904e+00 2.431019e-04 -3.193351e-04 2.074436e-02 1.614864e-03
2.648745e+02 -1.372173e+00 -1.132766e-04 1.613679e-04 -2.835098e-02 8.721472e-03
2.648812e+02 -1.332640e+00 1.701765e-04 -1.243433e-04 1.184472e-02 -2.618247e-02
2.648854e+02 -1.290368e+00 -2.919374e-04 3.536038e-05 -9.379242e-03 8.830533e-04
2.648883e+02 -1.314345e+00 3.568276e-04 5.574917e-04 1.390324e-03 8.146816e-03
2.648934e+02 -1.855736e+00 -1.367637e-05 -2.511091e-04 1.246195e-02 1.878669e-02
2.648944e+02 -1.809717e+00 -2.594307e-04 -1.584659e-04 2.503756e-03 -4.097830e-03
2.649004e+02 -1.780477e+00 3.358727e-04 2.499497e-04 1.487577e-02 1.146588e-03
2.649002e+02 -1.733727e+00 2.055551e-04 -4.544573e-05 -2.033955e-02 2.214484e-02
2.649072e+02 -1.704747e+00 6.313032e-04 -2.073352e-04 -2.506554e-02 1.870712e-02
2.649062e+02 -1.659177e+00 4.307768e-05 1.199491e-04 -2.385419e-03 -3.118408e-03
2.649146e+02 -1.652448e+00 -1.117250e-04 -4.060604e-04 -9.645215e-04 -1.747995e-02
2.649133e+02 -1.584978e+00 7.958836e-04 8.269233e-05 1.642782e-02 -1.548337e-02
2.649236e+02 -1.558533e+00 1.418754e-04 -2.482440e-04 -2.260441e-02 7.586165e-03
2.649241e+02 -1.515252e+00 -1.710065e-04 1.872428e-04 -9.309281e-03 1.205426e-02
2.649381e+02 -1.480836e+00 -2.602480e-05 2.187027e-04 -1.876189e-02 -9.914232e-03
2.648637e+02 -1.439201e+00 -9.510497e-04 -1.044434e-04 5.071056e-03 1.175667e-02
2.648838e+02 -1.440276e+00 4.454121e-05 4.486588e-04 1.842167e-02 1.627743e-02
2.648749e+02 -1.365540e+00 -9.891894e-05 -1.306282e-04 5.088436e-03 8.131831e-04
2.648935e+02 -1.331514e+00 -4.591443e-04 1.594431e-04 2.514507e-02 -9.255268e-03
2.648824e+02 -1.510146e+00 -8.764700e-05 -1.053114e-03 -2.259856e-02 2.321469e-02
2.649010e+02 -1.253385e+00 -3.110055e-04 3.593446e-05 -2.662246e-02 -1.735394e-02
2.648887e+02 -1.851422e+00 -3.769986e-04 -2.427458e-04 1.464761e-03 3.539345e-03
2.649081e+02 -1.807906e+00 2.199105e-04 1.636301e-04 1.259208e-02 9.067874e-03
2.648946e+02 -1.774481e+00 1.351687e-04 2.069512e-04 3.772148e-03 -1.183148e-02
2.649153e+02 -1.812958e+00 -2.185492e-04 -6.521674e-04 2.072557e-02 -2.712464e-03
2.649007e+02 -1.706093e+00 6.729748e-07 -2.213773e-04 -3.720697e-02 -1.551745e-02
2.649236e+02 -1.669959e+00 -3.152410e-04 2.847836e-04 -1.373286e-02 -4.426338e-03
2.649079e+02 -1.657673e+00 3.334145e-04 -4.524056e-04 -1.962717e-03 7.371041e-03
2.649349e+02 -1.579923e+00 -5.617734e-04 -1.481526e-06 1.039355e-02 1.543779e-02
2.649257e+02 -1.617577e+00 9.642228e-05 -6.151112e-04 1.331567e-02 7.831657e-04
2.649739e+02 -1.507923e+00 -2.698492e-04 -1.133670e-04 2.608514e-02 7.622439e-03
2.649352e+02 -1.472078e+00 3.200247e-04 5.736469e-05 3.418361e-03 -3.319903e-02
2.648366e+02 -1.436528e+00 -1.027105e-04 -3.072561e-05 -1.343949e-02 -6.507830e-03
2.649361e+02 -1.399637e+00 1.412807e-04 1.270461e-04 2.146144e-02 1.814486e-02
2.648610e+02 -1.364344e+00 -3.422042e-04 -1.273364e-04 -1.952505e-03 -1.337596e-02
2.649452e+02 -1.336023e+00 2.656397e-04 2.841642e-04 9.302162e-03 -7.500041e-03
2.648712e+02 -1.363842e+00 -5.127762e-05 -6.147176e-04 3.069451e-02 5.234835e-03
2.649756e+02 -1.245330e+00 1.470106e-04 -6.698169e-05 -6.795675e-03 2.503751e-03
2.648744e+02 -1.858379e+00 -1.229509e-04 3.174890e-04 2.441862e-03 8.133009e-03
2.648520e+02 -1.811033e+00 -1.941607e-04 -2.046812e-04 -5.778438e-03 -9.976675e-03
2.648926e+02 -1.771119e+00 3.985964e-04 1.948300e-04 5.172516e-03 -4.927744e-03
2.648667e+02 -1.729503e+00 5.858446e-05 -5.849884e-05 7.297400e-03 -1.729033e-02
2.649019e+02 -1.691043e+00 -4.124857e-04 8.288072e-05 -1.286423e-02 4.694071e-03
2.648753e+02 -1.771705e+00 3.299641e-04 7.713004e-04 -1.590961e-03 1.588160e-02
2.649095e+02 -1.660503e+00 1.506561e-04 -4.778927e-04 -1.091374e-02 -8.122544e-03
2.648820e+02 -1.579190e+00 -1.384529e-04 -1.048768e-05 6.708723e-04 -1.320840e-03
2.649169e+02 -1.541559e+00 3.172997e-04 3.498265e-05 -5.292952e-03 1.468576e-02
2.648881e+02 -1.509957e+00 7.540366e-05 -1.551560e-04 -4.251706e-03 7.804721e-03
2.649251e+02 -1.478591e+00 -2.219889e-04 2.415065e-04 5.806493e-03 1.519599e-02
2.648942e+02 -1.446806e+00 -5.702946e-05 -2.845153e-04 -2.588873e-03 -4.002326e-03
2.649359e+02 -1.395326e+00 7.203714e-04 1.254321e-04 1.119174e-02 1.534889e-03
2.649018e+02 -1.358230e+00 2.227206e-04 2.483903e-06 2.310305e-02 -5.418784e-03
2.649583e+02 -1.339123e+00 -3.401686e-04 3.338121e-04 -7.698685e-03 -5.594654e-03
2.649093e+02 -1.308215e+00 2.763507e-04 -3.620018e-04 3.865421e-03 5.544398e-03
2.648568e+02 -1.249073e+00 -2.296952e-05 4.678567e-05 1.358980e-02 1.056192e-02
2.649152e+02 -1.850216e+00 -6.728021e-04 -2.643072e-04 2.658669e-02 -4.810735e-03
2.648698e+02 -1.891333e+00 -1.862790e-04 -6.725564e-04 -2.039874e-02 2.083877e-02
2.649214e+02 -1.768246e+00 -2.781835e-04 1.525601e-04 -3.092241e-02 -1.530413e-02
2.648788e+02 -1.728608e+00 2.579465e-04 -1.176981e-04 1.072574e-02 1.307543e-02
2.649285e+02 -1.723370e+00 6.988948e-05 4.344691e-04 1.992925e-03 -1.149929e-02
2.648866e+02 -1.663512e+00 -2.264553e-04 -2.501192e-04 1.216833e-02 -3.754988e-04
2.649381e+02 -1.615250e+00 -9.657291e-05 -8.918279e-05 4.700600e-03 -2.717465e-02
2.648942e+02 -1.583613e+00 2.257298e-04 1.012415e-04 -4.066395e-02 -1.353873e-03
2.649585e+02 -1.565024e+00 7.757433e-04 -3.638494e-04 -6.500997e-03 2.735784e-02
2.649037e+02 -1.562393e+00 9.443735e-06 -5.492365e-04 1.013563e-02 1.207645e-02
2.648516e+02 -1.468794e+00 1.421002e-04 6.202135e-05 2.869531e-04 -1.251268e-02
2.649133e+02 -1.501422e+00 -1.800018e-04 6.072674e-04 1.366635e-02 -1.050888e-02
2.648641e+02 -1.408365e+00 8.648487e-05 2.684532e-04 -8.812479e-03 1.648719e-02
2.649209e+02 -1.378070e+00 2.706452e-04 -3.444114e-04 -1.963192e-02 -4.033665e-03
2.648719e+02 -1.320711e+00 -5.740845e-05 9.720967e-05 -5.297679e-03 1.804928e-03
2.649296e+02 -1.279667e+00 -4.220056e-04 2.446023e-05 -4.191234e-03 -1.177680e-02
2.648777e+02 -1.286837e+00 2.082875e-04 4.610414e-04 7.669862e-03 -6.107145e-03
2.649417e+02 -1.844951e+00 -1.077419e-04 -2.575245e-04 1.835752e-02 5.357490e-03
2.648945e+02 -1.806013e+00 -1.984966e-04 -2.091312e-04 9.973640e-03 -1.857114e-02
2.648591e+02 -1.761450e+00 2.468795e-04 -4.647060e-05 -9.049345e-03 4.841110e-03
2.649017e+02 -1.747127e+00 -2.990742e-05 3.560816e-04 5.772150e-04 1.078125e-02
2.648722e+02 -1.689477e+00 2.968988e-04 -1.291902e-04 2.760053e-03 -7.052127e-04
2.649078e+02 -1.698598e+00 -7.877113e-04 4.979954e-04 2.436954e-02 8.964152e-03
2.648811e+02 -1.615821e+00 9.871537e-05 1.248707e-04 1.509068e-02 -8.266416e-03
2.649138e+02 -1.579745e+00 -5.008324e-04 -1.359599e-04 -2.037704e-02 2.177240e-02
2.648886e+02 -1.546673e+00 5.658625e-05 -2.106982e-04 -1.064348e-02 1.656885e-03
2.649202e+02 -1.504240e+00 -2.132209e-04 1.592279e-04 -1.182319e-03 6.683233e-03
2.648957e+02 -1.474822e+00 -8.609270e-05 2.317580e-04 -9.601041e-03 -1.430213e-02
2.649282e+02 -1.425676e+00 -5.290651e-04 -4.113201e-05 1.302316e-02 2.246428e-03
2.649033e+02 -1.398358e+00 -1.228897e-05 -1.716200e-04 3.315043e-02 -5.523353e-03
2.649405e+02 -1.351330e+00 1.654903e-05 1.070959e-05 5.128349e-03 1.727512e-02
2.649129e+02 -1.372712e+00 -1.478883e-04 -5.417745e-04 -5.966800e-03 -1.207544e-03
2.648873e+02 -1.280536e+00 4.961450e-04 -8.596989e-05 6.188608e-03 4.770675e-03
2.648594e+02 -1.254579e+00 -3.838364e-04 -2.344820e-04 7.775910e-03 -9.558164e-03
2.648957e+02 -1.840670e+00 2.668178e-04 2.090914e-04 2.024537e-02 -3.638603e-03
2.648732e+02 -1.834336e+00 -5.075146e-04 4.441775e-04 -1.267625e-02 -3.835242e-03
2.649021e+02 -1.776371e+00 1.938262e-04 -3.158289e-04 1.249959e-03 7.476436e-03
2.648821e+02 -1.722474e+00 -9.136820e-05 7.362655e-05 1.134273e-02 1.299417e-02
2.649079e+02 -1.687459e+00 1.247051e-04 -1.488680e-04 -7.092346e-03 -1.419836e-02
2.648896e+02 -1.657100e+00 -1.548575e-04 2.323500e-04 2.841750e-03 -8.215890e-03
2.649140e+02 -1.640978e+00 4.421611e-04 4.005398e-04 -1.735806e-02 9.203077e-03
2.648966e+02 -1.577467e+00 3.001587e-04 5.130825e-05 1.313618e-02 3.775161e-02
2.649208e+02 -1.547305e+00 -7.378660e-04 2.485088e-04 -1.760042e-02 -9.687521e-03
2.649038e+02 -1.616033e+00 1.487650e-04 7.740974e-04 -6.423164e-04 -1.154020e-03
2.649298e+02 -1.460176e+00 -3.421475e-05 -4.097283e-05 1.330083e-03 -1.033368e-02
2.649123e+02 -1.426467e+00 7.324972e-05 9.363961e-05 -1.811659e-02 1.042832e-02
2.649485e+02 -1.398968e+00 1.436365e-04 -2.628877e-04 6.192684e-03 1.271414e-02
2.649271e+02 -1.350448e+00 2.760726e-04 -8.563575e-05 -1.876922e-03 -8.681548e-03
2.648649e+02 -1.331502e+00 -1.147948e-06 2.894620e-04 7.685415e-03 -3.451218e-03
2.648491e+02 -1.290573e+00 3.799153e-04 2.252888e-04 1.358917e-02 -2.157283e-02
2.648823e+02 -1.244650e+00 -1.329575e-04 -1.481916e-04 -7.865514e-03 6.432987e-03
2.648725e+02 -1.853645e+00 4.282649e-04 -3.463541e-04 -7.104914e-03 -7.031144e-03
2.648902e+02 -1.793800e+00 -3.498311e-04 9.866840e-05 3.568985e-03 -5.489840e-04
2.648826e+02 -1.792465e+00 4.202386e-05 -4.305549e-04 -4.316233e-03 -1.330606e-02
2.648966e+02 -1.717863e+00 -2.328975e-04 1.239247e-05 5.789698e-03 -5.932437e-03
2.648904e+02 -1.688107e+00 2.086497e-04 1.690745e-04 -1.376884e-02 1.712869e-02
2.649024e+02 -1.729413e+00 2.152778e-04 6.376748e-04 -4.040793e-02 -1.364201e-02
2.648973e+02 -1.630940e+00 -1.865066e-04 -3.474758e-04 -1.055158e-02 3.772614e-03
2.649083e+02 -1.570269e+00 4.218775e-04 6.193263e-05 6.578182e-04 9.546371e-03
2.649042e+02 -1.538937e+00 1.946215e-05 -1.741725e-04 1.192048e-02 3.723712e-03
2.649148e+02 -1.499023e+00 -1.889568e-04 -1.342846e-04 -3.453610e-03 1.169001e-02
2.649116e+02 -1.498738e+00 -6.297925e-05 4.468563e-04 -1.371224e-02 -1.304567e-02
2.649232e+02 -1.457183e+00 2.372199e-04 -4.256617e-04 1.317087e-02 -7.674022e-03
2.649210e+02 -1.385873e+00 -9.732908e-05 3.728489e-05 2.377071e-02 -1.261858e-03
2.649407e+02 -1.355885e+00 1.553532e-04 2.019369e-04 3.465885e-03 2.439114e-02
2.649393e+02 -1.319142e+00 -3.761949e-04 -2.098687e-04 -1.968980e-02 -7.821296e-03
2.648671e+02 -1.284639e+00 2.613382e-04 2.142522e-04 -5.058187e-03 -9.666846e-04
2.648802e+02 -1.281511e+00 -1.751927e-05 -4.675855e-04 5.183897e-03 1.024722e-02
2.648777e+02 -1.832481e+00 -3.724903e-04 1.202656e-04 -2.069581e-02 -1.850625e-02
2.648902e+02 -1.794210e+00 1.632612e-04 -1.316690e-04 1.643471e-02 9.423749e-03
2.648850e+02 -1.798430e+00 9.960126e-05 4.736759e-04 8.882116e-03 -1.714836e-02
2.648979e+02 -1.737138e+00 -2.532040e-04 -3.199660e-04 2.164100e-02 -4.797249e-03
2.648912e+02 -1.679336e+00 4.048312e-05 4.213059e-05 -8.049088e-03 -3.828762e-03
2.649048e+02 -1.692552e+00 -2.798722e-04 5.102233e-04 1.116351e-03 1.221334e-03
2.648970e+02 -1.619855e+00 4.198909e-04 -2.661627e-04 1.469393e-02 1.438977e-02
2.649119e+02 -1.580179e+00 2.598250e-05 2.589032e-04 -2.304038e-03 3.740237e-03
2.649031e+02 -1.593186e+00 -3.864908e-04 -5.557302e-04 1.122976e-02 2.164644e-02
2.649197e+02 -1.511098e+00 2.065020e-04 -2.941563e-04 -1.275819e-02 -1.707002e-02
2.649102e+02 -1.459813e+00 -1.040618e-04 1.338068e-04 -5.127340e-04 -7.924665e-03
2.649298e+02 -1.422761e+00 1.301640e-04 -8.857979e-05 -2.490591e-02 1.855007e-02
2.649225e+02 -1.384684e+00 -4.316899e-04 7.962969e-05 1.510968e-02 -1.908701e-02
2.649500e+02 -1.352519e+00 -4.638520e-05 -2.043737e-04 -1.739017e-02 1.224744e-03
2.648580e+02 -1.311352e+00 1.852359e-04 -5.506164e-05 -3.547308e-03 1.393396e-03
2.648889e+02 -1.294306e+00 -7.923017e-05 3.318947e-04 6.052033e-03 6.944935e-03
2.648705e+02 -1.242443e+00 4.901392e-04 -1.724166e-04 9.835796e-03 -4.888815e-03
2.648984e+02 -1.854408e+00 -4.537832e-04 3.756708e-04 2.806294e-02 1.730646e-03
2.648786e+02 -1.789462e+00 -9.010004e-06 -1.765461e-05 -1.086839e-02 1.779743e-02
2.649059e+02 -1.756835e+00 1.016557e-05 1.442969e-04 2.657099e-02 -1.522367e-02
2.648851e+02 -1.717276e+00 -4.960586e-04 -1.217388e-04 1.890527e-03 1.295174e-02
2.649130e+02 -1.685754e+00 7.410731e-05 -2.245173e-04 3.899526e-03 -8.386757e-03
2.648910e+02 -1.645202e+00 -2.114770e-04 1.576904e-04 1.432408e-02 -3.544229e-03
2.649207e+02 -1.626167e+00 -2.802379e-04 -3.495107e-04 -1.381638e-02 8.009187e-03
2.648972e+02 -1.567515e+00 3.478263e-04 8.913389e-05 -1.489099e-03 1.310861e-02
2.649301e+02 -1.527309e+00 1.057646e-04 -2.974761e-06 9.871617e-03 6.094676e-03
2.649046e+02 -1.668915e+00 -5.632924e-05 -9.430733e-04 2.466490e-02 -8.860625e-03
2.649451e+02 -1.486359e+00 2.712040e-05 -4.075669e-04 -6.721218e-03 1.929819e-02
2.649151e+02 -1.418553e+00 5.023917e-04 -4.467793e-05 -1.473167e-02 -1.564918e-02
2.648423e+02 -1.417482e+00 -3.892762e-04 4.154155e-04 -1.835023e-03 -7.598623e-03
2.649197e+02 -1.360936e+00 2.473435e-04 -3.021553e-04 9.443704e-03 3.986734e-03
2.648629e+02 -1.312725e+00 -5.320459e-05 1.135120e-04 2.208758e-02 1.062574e-02
2.649258e+02 -1.272569e+00 6.211828e-05 -1.261210e-04 8.459044e-04 -1.836261e-02
2.648735e+02 -1.254226e+00 -2.613169e-04 3.119654e-04 1.247133e-02 -1.423502e-02
2.649334e+02 -1.822323e+00 -5.196940e-04 1.529211e-05 -2.509917e-02 4.778189e-03
2.648818e+02 -1.839290e+00 2.604224e-04 5.175494e-04 -9.322833e-03 1.127549e-02
2.649448e+02 -1.762880e+00 -9.459817e-05 -2.810637e-04 3.097512e-03 2.171365e-02
2.648894e+02 -1.712849e+00 -1.460695e-04 -7.228913e-05 -5.163422e-03 -9.798414e-03
2.648355e+02 -1.711128e+00 5.515227e-04 4.137194e-04 6.876515e-03 -6.748251e-03
2.648986e+02 -1.697914e+00 -4.827626e-04 -5.456394e-04 2.405476e-02 8.566852e-03
2.648597e+02 -1.609718e+00 -2.251265e-04 -1.040003e-04 1.281250e-02 -4.042894e-02
2.649079e+02 -1.563916e+00 7.778341e-05 6.655027e-05 -9.958494e-03 -1.712863e-03
2.648697e+02 -1.590183e+00 -2.427847e-04 5.627606e-04 -1.174833e-03 4.188812e-03
2.649155e+02 -1.568574e+00 -8.959529e-05 -6.294790e-04 -1.401601e-02 -2.019048e-02
2.648769e+02 -1.453749e+00 7.150304e-04 -1.965982e-05 2.359011e-03 -1.060280e-02
2.649235e+02 -1.424852e+00 -3.770917e-04 1.871937e-04 -2.754893e-02 2.127806e-02
2.648831e+02 -1.383244e+00 2.228170e-04 -1.158480e-04 1.562133e-02 -1.533455e-02
2.649332e+02 -1.418778e+00 1.814026e-04 6.273857e-04 -6.497647e-03 1.929246e-02
2.648887e+02 -1.309453e+00 -1.861875e-05 -1.511858e-04 -2.147113e-03 2.116179e-03
2.649488e+02 -1.292210e+00 3.860173e-04 -3.670984e-04 -1.260637e-04 -1.255659e-02
2.648971e+02 -1.232885e+00 -4.394450e-04 9.678448e-05 1.052436e-02 -5.602175e-03
2.648499e+02 -1.837053e+00 -3.447722e-04 -2.743494e-04 -7.192079e-03 -2.309724e-03
2.649045e+02 -1.785456e+00 2.296128e-04 1.216539e-04 3.630224e-03 2.916597e-03
2.648671e+02 -1.776086e+00 -2.392477e-04 -3.798962e-04 -4.661394e-03 -8.721668e-03
2.649106e+02 -1.708782e+00 3.513865e-04 4.357285e-05 6.389780e-03 -2.594393e-03
2.648770e+02 -1.688019e+00 -1.065809e-04 2.475379e-04 -1.728588e-02 2.589517e-02
2.649167e+02 -1.642736e+00 1.673465e-04 -1.872209e-04 2.186370e-02 -9.244478e-03
2.648850e+02 -1.618794e+00 -1.925939e-04 3.014199e-04 -2.668376e-02 -3.255122e-03
2.649233e+02 -1.560529e+00 -2.947630e-04 -2.715909e-05 -2.335448e-04 1.345371e-02
2.648922e+02 -1.592404e+00 4.456538e-06 -5.869483e-04 2.408727e-03 2.451244e-03
2.649318e+02 -1.489014e+00 -2.956321e-04 -1.195911e-04 1.263372e-02 7.809533e-03
2.648998e+02 -1.452362e+00 1.795022e-04 1.649776e-05 -7.333735e-03 -2.585618e-02
2.649459e+02 -1.466428e+00 -1.803471e-04 5.236356e-04 5.167771e-03 -2.039107e-02
2.649094e+02 -1.379173e+00 -8.630609e-05 7.175478e-05 -2.722977e-02 -7.136996e-03
2.648466e+02 -1.351062e+00 4.326879e-05 2.045514e-04 9.287912e-03 1.640172e-02
2.649357e+02 -1.315259e+00 -5.557069e-04 -2.601339e-04 -1.438528e-02 -1.537000e-02
2.648560e+02 -1.274606e+00 1.680927e-04 1.910079e-04 5.459135e-04 -5.047188e-03
2.649485e+02 -1.282173e+00 -1.234352e-04 -5.305609e-04 1.268101e-02 5.886265e-03
2.648784e+02 -1.860810e+00 2.760320e-04 -1.517584e-04 -1.713372e-02 -2.862237e-03
2.648444e+02 -1.830683e+00 -3.011025e-05 2.317576e-04 -5.270375e-03 2.496273e-03
2.648912e+02 -1.785833e+00 3.566834e-04 1.400916e-04 -1.534009e-02 -1.172236e-02
2.648678e+02 -1.828249e+00 2.207798e-04 -6.471614e-04 9.497684e-03 9.775504e-03
2.648983e+02 -1.710859e+00 -1.403159e-04 -1.100598e-04 1.996305e-02 1.479222e-02
2.648783e+02 -1.671473e+00 9.047223e-05 3.229116e-05 -1.088885e-03 -1.541726e-02
2.649043e+02 -1.695393e+00 -2.544176e-04 5.604402e-04 1.169398e-02 -1.391013e-02
2.648863e+02 -1.596605e+00 -2.105269e-04 -3.441061e-05 -6.900729e-03 -1.351236e-05
2.649102e+02 -1.595456e+00 4.225067e-04 4.336731e-04 3.913145e-03 6.530310e-03
2.648935e+02 -1.526331e+00 -5.141646e-04 -1.447162e-04 5.262659e-03 -6.711846e-03
2.649165e+02 -1.500492e+00 1.384906e-04 2.824258e-04 1.620636e-02 -4.847470e-04
2.649004e+02 -1.451505e+00 -1.303391e-05 1.275624e-04 5.122883e-03 -1.255361e-02
2.649240e+02 -1.411589e+00 1.100853e-05 -7.751701e-05 -1.255443e-02 9.192282e-03
2.649081e+02 -1.415847e+00 -4.014085e-04 4.549732e-04 -4.385072e-03 2.170434e-02
2.649352e+02 -1.362746e+00 2.490019e-06 3.387359e-04 2.638746e-02 2.948300e-02
2.649181e+02 -1.307783e+00 3.007645e-04 -2.033485e-04 5.617874e-03 1.235830e-02
2.648755e+02 -1.345057e+00 -4.029257e-04 6.394794e-04 -7.526104e-03 1.969788e-03
2.648652e+02 -1.857508e+00 6.602839e-04 9.970731e-05 -2.304832e-02 -6.059616e-03
2.648859e+02 -1.828125e+00 3.095567e-04 2.168638e-04 3.089425e-02 2.632709e-03
2.648783e+02 -1.795907e+00 -4.267255e-04 -2.854339e-04 1.305775e-02 -4.169626e-03
2.648929e+02 -1.743993e+00 -2.729444e-04 2.513710e-05 -1.187327e-02 -2.430530e-02
2.648870e+02 -1.769719e+00 -4.125889e-05 -5.725682e-04 -1.210162e-03 4.563230e-03
2.648989e+02 -1.668142e+00 1.035560e-04 -1.957988e-05 -2.871673e-03 1.457494e-02
2.648942e+02 -1.656391e+00 -2.117456e-05 3.516538e-04 -8.616898e-03 -1.874651e-02
